VERSION .7
FIELDS x y z
SIZE 4 4 4
TYPE F F F
COUNT 1 1 1
WIDTH 1727
HEIGHT 1
VIEWPOINT 0 0 0 1 0 0 0
POINTS 1727
DATA ascii
-76.8876 -54.9197 -45.7664 
-76.8876 -55.3774 -45.7664 
-77.2863 -53.5059 -45.7315 
-77.2863 -53.9632 -45.7315 
-77.2863 -54.4205 -45.7315 
-77.2863 -54.8778 -45.7315 
-77.2863 -55.3351 -45.7315 
-77.6844 -53.4651 -45.6967 
-77.6844 -53.9221 -45.6967 
-77.6844 -54.3791 -45.6967 
-77.6844 -54.836 -45.6967 
-77.6844 -55.293 -45.6967 
-78.0819 -53.4244 -45.6619 
-78.0819 -53.8811 -45.6619 
-78.0819 -54.3377 -45.6619 
-78.0819 -54.7943 -45.6619 
-78.0819 -55.2509 -45.6619 
-78.4788 -53.3838 -45.6272 
-78.4788 -53.8401 -45.6272 
-78.4788 -54.2964 -45.6272 
-78.4788 -54.7526 -45.6272 
-78.4788 -55.2089 -45.6272 
-78.8751 -53.3433 -45.5925 
-78.8751 -53.7992 -45.5925 
-78.8751 -54.2551 -45.5925 
-78.8751 -54.711 -45.5925 
-78.8751 -55.167 -45.5925 
-79.2708 -53.3027 -45.5579 
-79.2708 -53.7583 -45.5579 
-79.2708 -54.2139 -45.5579 
-79.2708 -54.6695 -45.5579 
-79.2708 -55.1251 -45.5579 
-79.6658 -53.2623 -45.5233 
-79.6658 -53.7175 -45.5233 
-79.6658 -54.1728 -45.5233 
-79.6658 -54.628 -45.5233 
-79.6658 -55.0832 -45.5233 
-80.0603 -53.2219 -45.4888 
-80.0603 -53.6768 -45.4888 
-80.0603 -54.1317 -45.4888 
-80.0603 -54.5866 -45.4888 
-80.0603 -55.0415 -45.4888 
-80.4542 -53.1816 -45.4544 
-80.4542 -53.6362 -45.4544 
-80.4542 -54.0907 -45.4544 
-80.4542 -54.5452 -45.4544 
-80.4542 -54.9998 -45.4544 
-80.8475 -53.1413 -45.42 
-80.8475 -53.5955 -45.42 
-80.8475 -54.0497 -45.42 
-80.8475 -54.5039 -45.42 
-80.8475 -54.9581 -45.42 
-81.2402 -53.1012 -45.3856 
-81.2402 -53.555 -45.3856 
-81.2402 -54.0089 -45.3856 
-81.2402 -54.4627 -45.3856 
-81.2402 -54.9166 -45.3856 
-81.6323 -53.061 -45.3513 
-81.6323 -53.5145 -45.3513 
-81.6323 -53.968 -45.3513 
-81.6323 -54.4216 -45.3513 
-81.6323 -54.8751 -45.3513 
-82.0238 -53.0209 -45.317 
-82.0238 -53.4741 -45.317 
-82.0238 -53.9273 -45.317 
-82.0238 -54.3805 -45.317 
-82.0238 -54.8336 -45.317 
-82.4148 -52.9809 -45.2828 
-82.4148 -53.4338 -45.2828 
-82.4148 -53.8866 -45.2828 
-82.4148 -54.3394 -45.2828 
-82.4148 -54.7922 -45.2828 
-82.8051 -52.941 -45.2487 
-82.8051 -53.3935 -45.2487 
-82.8051 -53.8459 -45.2487 
-82.8051 -54.2984 -45.2487 
-82.8051 -54.7509 -45.2487 
-83.1948 -52.9011 -45.2146 
-83.1948 -53.3532 -45.2146 
-83.1948 -53.8054 -45.2146 
-83.1948 -54.2575 -45.2146 
-83.1948 -54.7097 -45.2146 
-83.584 -52.8612 -45.1805 
-83.584 -53.313 -45.1805 
-83.584 -53.7648 -45.1805 
-83.584 -54.2167 -45.1805 
-83.584 -54.6685 -45.1805 
-83.9726 -52.8215 -45.1465 
-83.9726 -53.2729 -45.1465 
-83.9726 -53.7244 -45.1465 
-83.9726 -54.1759 -45.1465 
-83.9726 -54.6273 -45.1465 
-84.3606 -52.7817 -45.1126 
-84.3606 -53.2329 -45.1126 
-84.3606 -53.684 -45.1126 
-84.3606 -54.1351 -45.1126 
-84.3606 -54.5863 -45.1126 
-84.748 -52.7421 -45.0787 
-84.748 -53.1929 -45.0787 
-84.748 -53.6437 -45.0787 
-84.748 -54.0945 -45.0787 
-84.748 -54.5452 -45.0787 
-85.1348 -52.7025 -45.0449 
-85.1348 -53.1529 -45.0449 
-85.1348 -53.6034 -45.0449 
-85.1348 -54.0538 -45.0449 
-85.1348 -54.5043 -45.0449 
-85.521 -52.663 -45.0111 
-85.521 -53.1131 -45.0111 
-85.521 -53.5632 -45.0111 
-85.521 -54.0133 -45.0111 
-85.521 -54.4634 -45.0111 
-85.9067 -52.6235 -44.9773 
-85.9067 -53.0733 -44.9773 
-85.9067 -53.523 -44.9773 
-85.9067 -53.9728 -44.9773 
-85.9067 -54.4226 -44.9773 
-86.2918 -52.5841 -44.9436 
-86.2918 -53.0335 -44.9436 
-86.2918 -53.4829 -44.9436 
-86.2918 -53.9324 -44.9436 
-86.2918 -54.3818 -44.9436 
-86.6763 -52.5447 -44.91 
-86.6763 -52.9938 -44.91 
-86.6763 -53.4429 -44.91 
-86.6763 -53.892 -44.91 
-86.6763 -54.3411 -44.91 
-87.0602 -52.5054 -44.8764 
-87.0602 -52.9542 -44.8764 
-87.0602 -53.4029 -44.8764 
-87.0602 -53.8517 -44.8764 
-87.0602 -54.3005 -44.8764 
-87.4436 -52.4662 -44.8429 
-87.4436 -52.9146 -44.8429 
-87.4436 -53.363 -44.8429 
-87.4436 -53.8114 -44.8429 
-87.4436 -54.2599 -44.8429 
-87.8264 -52.427 -44.8094 
-87.8264 -52.8751 -44.8094 
-87.8264 -53.3232 -44.8094 
-87.8264 -53.7713 -44.8094 
-87.8264 -54.2194 -44.8094 
-88.2086 -52.3879 -44.7759 
-88.2086 -52.8356 -44.7759 
-88.2086 -53.2834 -44.7759 
-88.2086 -53.7311 -44.7759 
-88.2086 -54.1789 -44.7759 
-88.5903 -52.3488 -44.7426 
-88.5903 -52.7962 -44.7426 
-88.5903 -53.2436 -44.7426 
-88.5903 -53.6911 -44.7426 
-88.5903 -54.1385 -44.7426 
-88.9713 -52.3098 -44.7092 
-88.9713 -52.7569 -44.7092 
-88.9713 -53.204 -44.7092 
-88.9713 -53.6511 -44.7092 
-88.9713 -54.0981 -44.7092 
-89.3518 -52.2708 -44.6759 
-89.3518 -52.7176 -44.6759 
-89.3518 -53.1643 -44.6759 
-89.3518 -53.6111 -44.6759 
-89.3518 -54.0579 -44.6759 
-89.7318 -52.2319 -44.6427 
-89.7318 -52.6784 -44.6427 
-89.7318 -53.1248 -44.6427 
-89.7318 -53.5712 -44.6427 
-89.7318 -54.0176 -44.6427 
-90.1112 -52.1931 -44.6095 
-90.1112 -52.6392 -44.6095 
-90.1112 -53.0853 -44.6095 
-90.1112 -53.5314 -44.6095 
-90.1112 -53.9775 -44.6095 
-90.49 -52.1543 -44.5764 
-90.49 -52.6001 -44.5764 
-90.49 -53.0459 -44.5764 
-90.49 -53.4916 -44.5764 
-90.49 -53.9374 -44.5764 
-90.8682 -52.1156 -44.5433 
-90.8682 -52.561 -44.5433 
-90.8682 -53.0065 -44.5433 
-90.8682 -53.4519 -44.5433 
-90.8682 -53.8973 -44.5433 
-91.2459 -52.077 -44.5102 
-91.2459 -52.5221 -44.5102 
-91.2459 -52.9672 -44.5102 
-91.2459 -53.4123 -44.5102 
-91.2459 -53.8574 -44.5102 
-91.6231 -52.0383 -44.4772 
-91.6231 -52.4831 -44.4772 
-91.6231 -52.9279 -44.4772 
-91.6231 -53.3727 -44.4772 
-91.6231 -53.8174 -44.4772 
-91.9996 -51.9998 -44.4443 
-91.9996 -52.4442 -44.4443 
-91.9996 -52.8887 -44.4443 
-91.9996 -53.3331 -44.4443 
-91.9996 -53.7776 -44.4443 
-92.3757 -51.9613 -44.4114 
-92.3757 -52.4054 -44.4114 
-92.3757 -52.8495 -44.4114 
-92.3757 -53.2937 -44.4114 
-92.3757 -53.7378 -44.4114 
-92.7511 -51.9229 -44.3785 
-92.7511 -52.3667 -44.3785 
-92.7511 -52.8104 -44.3785 
-92.7511 -53.2542 -44.3785 
-92.7511 -53.698 -44.3785 
-93.126 -51.8845 -44.3457 
-93.126 -52.328 -44.3457 
-93.126 -52.7714 -44.3457 
-93.126 -53.2149 -44.3457 
-93.126 -53.6583 -44.3457 
-93.5004 -51.8462 -44.313 
-93.5004 -52.2893 -44.313 
-93.5004 -52.7324 -44.313 
-93.5004 -53.1756 -44.313 
-93.5004 -53.6187 -44.313 
-93.8742 -51.8079 -44.2803 
-93.8742 -52.2507 -44.2803 
-93.8742 -52.6935 -44.2803 
-93.8742 -53.1363 -44.2803 
-93.8742 -53.5791 -44.2803 
-94.2474 -51.7697 -44.2476 
-94.2474 -52.2122 -44.2476 
-94.2474 -52.6547 -44.2476 
-94.2474 -53.0971 -44.2476 
-94.2474 -53.5396 -44.2476 
-94.6201 -51.7316 -44.215 
-94.6201 -52.1737 -44.215 
-94.6201 -52.6159 -44.215 
-94.6201 -53.058 -44.215 
-94.6201 -53.5002 -44.215 
-94.9923 -51.6935 -44.1825 
-94.9923 -52.1353 -44.1825 
-94.9923 -52.5771 -44.1825 
-94.9923 -53.0189 -44.1825 
-94.9923 -53.4608 -44.1825 
-95.3639 -51.6554 -44.1499 
-95.3639 -52.0969 -44.1499 
-95.3639 -52.5384 -44.1499 
-95.3639 -52.9799 -44.1499 
-95.3639 -53.4214 -44.1499 
-95.7349 -51.6174 -44.1175 
-95.7349 -52.0586 -44.1175 
-95.7349 -52.4998 -44.1175 
-95.7349 -52.941 -44.1175 
-95.7349 -53.3821 -44.1175 
-96.1054 -51.5795 -44.0851 
-96.1054 -52.0204 -44.0851 
-96.1054 -52.4612 -44.0851 
-96.1054 -52.9021 -44.0851 
-96.1054 -53.3429 -44.0851 
-96.4754 -51.5417 -44.0527 
-96.4754 -51.9822 -44.0527 
-96.4754 -52.4227 -44.0527 
-96.4754 -52.8632 -44.0527 
-96.4754 -53.3038 -44.0527 
-96.8448 -51.5038 -44.0204 
-96.8448 -51.944 -44.0204 
-96.8448 -52.3842 -44.0204 
-96.8448 -52.8244 -44.0204 
-96.8448 -53.2647 -44.0204 
-97.2137 -51.4661 -43.9881 
-97.2137 -51.906 -43.9881 
-97.2137 -52.3458 -43.9881 
-97.2137 -52.7857 -43.9881 
-97.2137 -53.2256 -43.9881 
-97.582 -51.4284 -43.9559 
-97.582 -51.8679 -43.9559 
-97.582 -52.3075 -43.9559 
-97.582 -52.7471 -43.9559 
-97.582 -53.1866 -43.9559 
-97.9498 -51.3907 -43.9237 
-97.9498 -51.83 -43.9237 
-97.9498 -52.2692 -43.9237 
-97.9498 -52.7084 -43.9237 
-97.9498 -53.1477 -43.9237 
-98.3171 -51.3531 -43.8916 
-98.3171 -51.792 -43.8916 
-98.3171 -52.231 -43.8916 
-98.3171 -52.6699 -43.8916 
-98.3171 -53.1088 -43.8916 
-98.6838 -51.3156 -43.8595 
-98.6838 -51.7542 -43.8595 
-98.6838 -52.1928 -43.8595 
-98.6838 -52.6314 -43.8595 
-98.6838 -53.07 -43.8595 
-99.05 -51.2781 -43.8274 
-99.05 -51.7164 -43.8274 
-99.05 -52.1547 -43.8274 
-99.05 -52.5929 -43.8274 
-99.05 -53.0312 -43.8274 
-99.4157 -51.2407 -43.7955 
-99.4157 -51.6786 -43.7955 
-99.4157 -52.1166 -43.7955 
-99.4157 -52.5545 -43.7955 
-99.4157 -52.9925 -43.7955 
-99.7808 -51.2033 -43.7635 
-99.7808 -51.6409 -43.7635 
-99.7808 -52.0786 -43.7635 
-99.7808 -52.5162 -43.7635 
-99.7808 -52.9538 -43.7635 
-100.145 -51.166 -43.7316 
-100.145 -51.6033 -43.7316 
-100.145 -52.0406 -43.7316 
-100.145 -52.4779 -43.7316 
-100.145 -52.9152 -43.7316 
-100.509 -51.1287 -43.6998 
-100.509 -51.5657 -43.6998 
-100.509 -52.0027 -43.6998 
-100.509 -52.4397 -43.6998 
-100.509 -52.8767 -43.6998 
-100.873 -51.0915 -43.668 
-100.873 -51.5282 -43.668 
-100.873 -51.9649 -43.668 
-100.873 -52.4015 -43.668 
-100.873 -52.8382 -43.668 
-101.236 -51.0544 -43.6362 
-101.236 -51.4907 -43.6362 
-101.236 -51.9271 -43.6362 
-101.236 -52.3634 -43.6362 
-101.236 -52.7998 -43.6362 
-101.598 -51.0172 -43.6045 
-101.598 -51.4533 -43.6045 
-101.598 -51.8893 -43.6045 
-101.598 -52.3254 -43.6045 
-101.598 -52.7614 -43.6045 
-101.96 -50.9802 -43.5728 
-101.96 -51.4159 -43.5728 
-101.96 -51.8517 -43.5728 
-101.96 -52.2874 -43.5728 
-101.96 -52.7231 -43.5728 
-102.322 -50.9432 -43.5412 
-102.322 -51.3786 -43.5412 
-102.322 -51.814 -43.5412 
-102.322 -52.2494 -43.5412 
-102.322 -52.6849 -43.5412 
-102.683 -50.9063 -43.5096 
-102.683 -51.3414 -43.5096 
-102.683 -51.7765 -43.5096 
-102.683 -52.2115 -43.5096 
-102.683 -52.6466 -43.5096 
-103.043 -50.8694 -43.4781 
-103.043 -51.3042 -43.4781 
-103.043 -51.7389 -43.4781 
-103.043 -52.1737 -43.4781 
-103.043 -52.6085 -43.4781 
-103.403 -50.8325 -43.4466 
-103.403 -51.267 -43.4466 
-103.403 -51.7015 -43.4466 
-103.403 -52.1359 -43.4466 
-103.403 -52.5704 -43.4466 
-103.762 -50.7958 -43.4152 
-103.762 -51.2299 -43.4152 
-103.762 -51.6641 -43.4152 
-103.762 -52.0982 -43.4152 
-103.762 -52.5324 -43.4152 
-104.121 -50.759 -43.3838 
-104.121 -51.1929 -43.3838 
-104.121 -51.6267 -43.3838 
-104.121 -52.0605 -43.3838 
-104.121 -52.4944 -43.3838 
-104.479 -51.1559 -43.3524 
-104.479 -51.5894 -43.3524 
-104.479 -52.0229 -43.3524 
-104.479 -52.4564 -43.3524 
-104.837 -51.1189 -43.3211 
-104.837 -51.5522 -43.3211 
-104.837 -51.9854 -43.3211 
-104.837 -52.4186 -43.3211 
-105.194 -50.6492 -43.2899 
-105.194 -51.0821 -43.2899 
-105.194 -51.515 -43.2899 
-105.194 -51.9479 -43.2899 
-105.551 -50.6126 -43.2587 
-105.551 -51.0452 -43.2587 
-105.551 -51.4778 -43.2587 
-105.551 -51.9104 -43.2587 
-105.551 -52.343 -43.2587 
-105.907 -50.5762 -43.2275 
-105.907 -51.0085 -43.2275 
-105.907 -51.4407 -43.2275 
-105.907 -51.873 -43.2275 
-105.907 -52.3053 -43.2275 
-106.263 -50.5398 -43.1964 
-106.263 -50.9717 -43.1964 
-106.618 -50.5034 -43.1653 
-106.973 -50.4671 -43.1343 
-106.973 -50.8984 -43.1343 
-106.973 -51.3298 -43.1343 
-106.973 -51.7611 -43.1343 
-106.973 -52.1925 -43.1343 
-107.327 -50.4308 -43.1033 
-107.327 -50.8619 -43.1033 
-107.327 -51.2929 -43.1033 
-107.327 -51.7239 -43.1033 
-107.327 -52.155 -43.1033 
-107.681 -50.3946 -43.0723 
-107.681 -50.8254 -43.0723 
-107.681 -51.2561 -43.0723 
-107.681 -51.6868 -43.0723 
-107.681 -52.1175 -43.0723 
-108.034 -50.7889 -43.0414 
-108.034 -51.2193 -43.0414 
-108.034 -51.6497 -43.0414 
-108.387 -51.1826 -43.0106 
-24.1813 -61.4607 -50.3776 
-24.6643 -60.9058 -50.3354 
-24.6643 -61.4091 -50.3354 
-24.6643 -61.9125 -50.3354 
-25.1466 -60.8547 -50.2932 
-25.1466 -61.3577 -50.2932 
-25.1466 -61.8606 -50.2932 
-25.628 -60.8038 -50.251 
-25.628 -61.3063 -50.251 
-25.628 -61.8088 -50.251 
-26.1087 -60.2508 -50.209 
-26.1087 -60.7529 -50.209 
-26.1087 -61.255 -50.209 
-26.1087 -61.7571 -50.209 
-26.1087 -62.2591 -50.209 
-26.5885 -60.2004 -50.167 
-26.5885 -60.7021 -50.167 
-26.5885 -61.2037 -50.167 
-26.5885 -61.7054 -50.167 
-26.5885 -62.2071 -50.167 
-27.0676 -60.1501 -50.1251 
-27.0676 -60.6514 -50.1251 
-27.0676 -61.1526 -50.1251 
-27.0676 -61.6539 -50.1251 
-27.0676 -62.1551 -50.1251 
-27.5458 -60.0999 -50.0833 
-27.5458 -60.6007 -50.0833 
-27.5458 -61.1016 -50.0833 
-27.5458 -61.6024 -50.0833 
-28.0232 -60.0498 -50.0415 
-28.0232 -60.5502 -50.0415 
-28.0232 -61.0506 -50.0415 
-28.0232 -62.0514 -50.0415 
-28.4999 -59.9997 -49.9998 
-28.4999 -60.4997 -49.9998 
-28.4999 -60.9997 -49.9998 
-28.4999 -61.4997 -49.9998 
-28.4999 -61.9997 -49.9998 
-28.9757 -59.9498 -49.9581 
-28.9757 -60.4494 -49.9581 
-28.9757 -60.9489 -49.9581 
-28.9757 -61.4485 -49.9581 
-28.9757 -61.9481 -49.9581 
-29.4508 -59.8999 -49.9166 
-29.4508 -60.3991 -49.9166 
-29.4508 -60.8982 -49.9166 
-29.4508 -61.3974 -49.9166 
-29.4508 -61.8966 -49.9166 
-29.9251 -59.8501 -49.8751 
-29.9251 -60.3489 -49.8751 
-29.9251 -60.8476 -49.8751 
-29.9251 -61.3464 -49.8751 
-29.9251 -61.8451 -49.8751 
-30.3985 -59.8004 -49.8337 
-30.3985 -60.2987 -49.8337 
-30.3985 -60.7971 -49.8337 
-30.3985 -61.2954 -49.8337 
-30.3985 -61.7938 -49.8337 
-30.8712 -59.7508 -49.7923 
-30.8712 -60.2487 -49.7923 
-30.8712 -60.7466 -49.7923 
-30.8712 -61.2445 -49.7923 
-30.8712 -61.7425 -49.7923 
-31.3431 -59.7012 -49.751 
-31.3431 -60.1987 -49.751 
-31.3431 -60.6963 -49.751 
-31.3431 -61.1938 -49.751 
-31.3431 -61.6913 -49.751 
-31.8143 -59.6518 -49.7098 
-31.8143 -60.1489 -49.7098 
-31.8143 -60.646 -49.7098 
-31.8143 -61.1431 -49.7098 
-31.8143 -61.6402 -49.7098 
-32.2846 -59.6024 -49.6687 
-32.2846 -60.0991 -49.6687 
-32.2846 -60.5958 -49.6687 
-32.2846 -61.0924 -49.6687 
-32.2846 -61.5891 -49.6687 
-32.7542 -59.5531 -49.6276 
-32.7542 -60.0494 -49.6276 
-32.7542 -60.5456 -49.6276 
-32.7542 -61.0419 -49.6276 
-32.7542 -61.5382 -49.6276 
-33.223 -59.5039 -49.5866 
-33.223 -59.9997 -49.5866 
-33.223 -60.4956 -49.5866 
-33.223 -60.9915 -49.5866 
-33.223 -61.4873 -49.5866 
-33.691 -59.4547 -49.5456 
-33.691 -59.9502 -49.5456 
-33.691 -60.4457 -49.5456 
-33.691 -60.9411 -49.5456 
-33.691 -61.4366 -49.5456 
-34.1583 -59.4057 -49.5047 
-34.1583 -59.9007 -49.5047 
-34.1583 -60.3958 -49.5047 
-34.1583 -60.8908 -49.5047 
-34.1583 -61.3859 -49.5047 
-34.6247 -59.3567 -49.4639 
-34.6247 -59.8513 -49.4639 
-34.6247 -60.346 -49.4639 
-34.6247 -60.8406 -49.4639 
-34.6247 -61.3353 -49.4639 
-35.0905 -59.3078 -49.4232 
-35.0905 -59.802 -49.4232 
-35.0905 -60.2963 -49.4232 
-35.0905 -60.7905 -49.4232 
-35.0905 -61.2847 -49.4232 
-35.5554 -59.259 -49.3825 
-35.5554 -59.7528 -49.3825 
-35.5554 -60.2467 -49.3825 
-35.5554 -60.7405 -49.3825 
-35.5554 -61.2343 -49.3825 
-36.0196 -59.2103 -49.3419 
-36.0196 -59.7037 -49.3419 
-36.0196 -60.1971 -49.3419 
-36.0196 -60.6905 -49.3419 
-36.0196 -61.1839 -49.3419 
-36.483 -59.1616 -49.3013 
-36.483 -59.6546 -49.3013 
-36.483 -60.1476 -49.3013 
-36.483 -60.6407 -49.3013 
-36.483 -61.1337 -49.3013 
-36.9457 -59.113 -49.2609 
-36.9457 -59.6057 -49.2609 
-36.9457 -60.0983 -49.2609 
-36.9457 -60.5909 -49.2609 
-36.9457 -61.0835 -49.2609 
-37.4076 -59.0646 -49.2205 
-37.4076 -59.5568 -49.2205 
-37.4076 -60.049 -49.2205 
-37.4076 -60.5412 -49.2205 
-37.4076 -61.0334 -49.2205 
-37.8687 -59.0161 -49.1801 
-37.8687 -59.5079 -49.1801 
-37.8687 -59.9997 -49.1801 
-37.8687 -60.4915 -49.1801 
-37.8687 -60.9833 -49.1801 
-38.3291 -58.9678 -49.1398 
-38.3291 -59.4592 -49.1398 
-38.3291 -59.9506 -49.1398 
-38.3291 -60.442 -49.1398 
-38.3291 -60.9334 -49.1398 
-38.7887 -58.9196 -49.0996 
-38.7887 -59.4105 -49.0996 
-38.7887 -59.9015 -49.0996 
-38.7887 -60.3925 -49.0996 
-38.7887 -60.8835 -49.0996 
-39.2476 -58.8714 -49.0595 
-39.2476 -59.362 -49.0595 
-39.2476 -59.8526 -49.0595 
-39.2476 -60.3432 -49.0595 
-39.2476 -60.8338 -49.0595 
-39.7057 -58.8233 -49.0194 
-39.7057 -59.3135 -49.0194 
-39.7057 -59.8037 -49.0194 
-39.7057 -60.2939 -49.0194 
-39.7057 -60.7841 -49.0194 
-40.1631 -58.7753 -48.9794 
-40.1631 -59.2651 -48.9794 
-40.1631 -59.7548 -48.9794 
-40.1631 -60.2446 -48.9794 
-40.1631 -60.7344 -48.9794 
-40.6197 -58.7273 -48.9394 
-40.6197 -59.2167 -48.9394 
-40.6197 -59.7061 -48.9394 
-40.6197 -60.1955 -48.9394 
-40.6197 -60.6849 -48.9394 
-41.0756 -58.6795 -48.8995 
-41.0756 -59.1685 -48.8995 
-41.0756 -59.6574 -48.8995 
-41.0756 -60.1464 -48.8995 
-41.0756 -60.6354 -48.8995 
-41.5308 -58.6317 -48.8597 
-41.5308 -59.1203 -48.8597 
-41.5308 -59.6089 -48.8597 
-41.5308 -60.0975 -48.8597 
-41.5308 -60.5861 -48.8597 
-41.9852 -58.584 -48.82 
-41.9852 -59.0722 -48.82 
-41.9852 -59.5604 -48.82 
-41.9852 -60.0486 -48.82 
-41.9852 -60.5368 -48.82 
-42.4388 -58.5363 -48.7803 
-42.4388 -59.0241 -48.7803 
-42.4388 -59.5119 -48.7803 
-42.4388 -59.9997 -48.7803 
-42.4388 -60.4875 -48.7803 
-42.8918 -58.4888 -48.7407 
-42.8918 -58.9762 -48.7407 
-42.8918 -59.4636 -48.7407 
-42.8918 -59.951 -48.7407 
-42.8918 -60.4384 -48.7407 
-43.344 -58.4413 -48.7011 
-43.344 -58.9283 -48.7011 
-43.344 -59.4153 -48.7011 
-43.344 -59.9023 -48.7011 
-43.344 -60.3894 -48.7011 
-43.7954 -58.3939 -48.6616 
-43.7954 -58.8805 -48.6616 
-43.7954 -59.3671 -48.6616 
-43.7954 -59.8538 -48.6616 
-43.7954 -60.3404 -48.6616 
-44.2462 -58.3466 -48.6222 
-44.2462 -58.8328 -48.6222 
-44.2462 -59.319 -48.6222 
-44.2462 -59.8053 -48.6222 
-44.2462 -60.2915 -48.6222 
-44.6962 -58.2993 -48.5828 
-44.6962 -58.7852 -48.5828 
-44.6962 -59.271 -48.5828 
-44.6962 -59.7568 -48.5828 
-44.6962 -60.2427 -48.5828 
-45.1454 -58.2522 -48.5435 
-45.1454 -58.7376 -48.5435 
-45.1454 -59.223 -48.5435 
-45.1454 -59.7085 -48.5435 
-45.1454 -60.1939 -48.5435 
-45.594 -58.2051 -48.5042 
-45.594 -58.6901 -48.5042 
-45.594 -59.1752 -48.5042 
-45.594 -59.6602 -48.5042 
-45.594 -60.1453 -48.5042 
-46.0418 -58.1581 -48.4651 
-46.0418 -58.6427 -48.4651 
-46.0418 -59.1274 -48.4651 
-46.0418 -59.612 -48.4651 
-46.0418 -60.0967 -48.4651 
-46.4889 -58.1111 -48.4259 
-46.4889 -58.5954 -48.4259 
-46.4889 -59.0797 -48.4259 
-46.4889 -59.5639 -48.4259 
-46.4889 -60.0482 -48.4259 
-46.9353 -58.0643 -48.3869 
-46.9353 -58.5481 -48.3869 
-46.9353 -59.032 -48.3869 
-46.9353 -59.5159 -48.3869 
-46.9353 -59.9997 -48.3869 
-47.3809 -58.0175 -48.3479 
-47.3809 -58.501 -48.3479 
-47.3809 -58.9844 -48.3479 
-47.3809 -59.4679 -48.3479 
-47.3809 -59.9514 -48.3479 
-47.8259 -57.9708 -48.309 
-47.8259 -58.4539 -48.309 
-47.8259 -58.937 -48.309 
-47.8259 -59.42 -48.309 
-47.8259 -59.9031 -48.309 
-48.2701 -57.9241 -48.2701 
-48.2701 -58.4068 -48.2701 
-48.2701 -58.8895 -48.2701 
-48.2701 -59.3722 -48.2701 
-48.2701 -59.8549 -48.2701 
-48.7136 -57.8776 -48.2313 
-48.7136 -58.3599 -48.2313 
-48.7136 -58.8422 -48.2313 
-48.7136 -59.3245 -48.2313 
-48.7136 -59.8068 -48.2313 
-49.1564 -57.8311 -48.1926 
-49.1564 -58.313 -48.1926 
-49.1564 -58.7949 -48.1926 
-49.1564 -59.2769 -48.1926 
-49.1564 -59.7588 -48.1926 
-49.5985 -57.7847 -48.1539 
-49.5985 -58.2662 -48.1539 
-49.5985 -58.7477 -48.1539 
-49.5985 -59.2293 -48.1539 
-49.5985 -59.7108 -48.1539 
-50.0399 -57.7383 -48.1153 
-50.0399 -58.2195 -48.1153 
-50.0399 -58.7006 -48.1153 
-50.0399 -59.1818 -48.1153 
-50.0399 -59.6629 -48.1153 
-50.4806 -57.6921 -48.0767 
-50.4806 -58.1728 -48.0767 
-50.4806 -58.6536 -48.0767 
-50.4806 -59.1344 -48.0767 
-50.4806 -59.6151 -48.0767 
-50.9205 -57.6459 -48.0382 
-50.9205 -58.1263 -48.0382 
-50.9205 -58.6066 -48.0382 
-50.9205 -59.087 -48.0382 
-50.9205 -59.5674 -48.0382 
-51.3598 -57.5998 -47.9998 
-51.3598 -58.0798 -47.9998 
-51.3598 -58.5598 -47.9998 
-51.3598 -59.0398 -47.9998 
-51.3598 -59.5198 -47.9998 
-51.7983 -57.5537 -47.9614 
-51.7983 -58.0333 -47.9614 
-51.7983 -58.5129 -47.9614 
-51.7983 -58.9926 -47.9614 
-51.7983 -59.4722 -47.9614 
-52.2362 -57.5077 -47.9231 
-52.2362 -57.987 -47.9231 
-52.2362 -58.4662 -47.9231 
-52.2362 -58.9454 -47.9231 
-52.2362 -59.4247 -47.9231 
-52.6734 -57.4619 -47.8849 
-52.6734 -57.9407 -47.8849 
-52.6734 -58.4195 -47.8849 
-52.6734 -58.8984 -47.8849 
-52.6734 -59.3772 -47.8849 
-53.1098 -57.416 -47.8467 
-53.1098 -57.8945 -47.8467 
-53.1098 -58.373 -47.8467 
-53.1098 -58.8514 -47.8467 
-53.1098 -59.3299 -47.8467 
-53.5456 -57.3703 -47.8086 
-53.5456 -57.8484 -47.8086 
-53.5456 -58.3265 -47.8086 
-53.5456 -58.8045 -47.8086 
-53.5456 -59.2826 -47.8086 
-53.9807 -57.3246 -47.7705 
-53.9807 -57.8023 -47.7705 
-53.9807 -58.28 -47.7705 
-53.9807 -58.7577 -47.7705 
-53.9807 -59.2354 -47.7705 
-54.415 -57.279 -47.7325 
-54.415 -57.7563 -47.7325 
-54.415 -58.2336 -47.7325 
-54.415 -58.711 -47.7325 
-54.415 -59.1883 -47.7325 
-54.8487 -57.2335 -47.6946 
-54.8487 -57.7104 -47.6946 
-54.8487 -58.1874 -47.6946 
-54.8487 -58.6643 -47.6946 
-54.8487 -59.1412 -47.6946 
-55.2817 -57.188 -47.6567 
-55.2817 -57.6646 -47.6567 
-55.2817 -58.1411 -47.6567 
-55.2817 -58.6177 -47.6567 
-55.2817 -59.0943 -47.6567 
-55.7141 -57.1426 -47.6189 
-55.7141 -57.6188 -47.6189 
-55.7141 -58.095 -47.6189 
-55.7141 -58.5712 -47.6189 
-55.7141 -59.0474 -47.6189 
-56.1457 -57.0973 -47.5811 
-56.1457 -57.5731 -47.5811 
-56.1457 -58.0489 -47.5811 
-56.1457 -58.5247 -47.5811 
-56.1457 -59.0005 -47.5811 
-56.5766 -57.0521 -47.5434 
-56.5766 -57.5275 -47.5434 
-56.5766 -58.0029 -47.5434 
-56.5766 -58.4784 -47.5434 
-56.5766 -58.9538 -47.5434 
-57.0069 -57.0069 -47.5057 
-57.0069 -57.4819 -47.5057 
-57.0069 -57.957 -47.5057 
-57.0069 -58.4321 -47.5057 
-57.0069 -58.9071 -47.5057 
-57.4365 -56.9618 -47.4682 
-57.4365 -57.4365 -47.4682 
-57.4365 -57.9112 -47.4682 
-57.4365 -58.3858 -47.4682 
-57.4365 -58.8605 -47.4682 
-57.8654 -56.9168 -47.4306 
-57.8654 -57.3911 -47.4306 
-57.8654 -57.8654 -47.4306 
-57.8654 -58.3397 -47.4306 
-57.8654 -58.814 -47.4306 
-58.2936 -56.8718 -47.3932 
-58.2936 -57.3457 -47.3932 
-58.2936 -57.8197 -47.3932 
-58.2936 -58.2936 -47.3932 
-58.2936 -58.7675 -47.3932 
-58.7211 -56.8269 -47.3558 
-58.7211 -57.3005 -47.3558 
-58.7211 -57.774 -47.3558 
-58.7211 -58.2476 -47.3558 
-58.7211 -58.7211 -47.3558 
-59.148 -56.7821 -47.3184 
-59.148 -57.2553 -47.3184 
-59.148 -57.7285 -47.3184 
-59.148 -58.2017 -47.3184 
-59.148 -58.6748 -47.3184 
-59.5742 -56.7374 -47.2811 
-59.5742 -57.2102 -47.2811 
-59.5742 -57.683 -47.2811 
-59.5742 -58.1558 -47.2811 
-59.5742 -58.6286 -47.2811 
-59.9998 -56.6927 -47.2439 
-59.9998 -57.1651 -47.2439 
-59.9998 -57.6376 -47.2439 
-59.9998 -58.11 -47.2439 
-59.9998 -58.5824 -47.2439 
-60.4246 -56.6481 -47.2067 
-60.4246 -57.1201 -47.2067 
-60.4246 -57.5922 -47.2067 
-60.4246 -58.0643 -47.2067 
-60.4246 -58.5363 -47.2067 
-60.8488 -56.6035 -47.1696 
-60.8488 -57.0752 -47.1696 
-60.8488 -57.5469 -47.1696 
-60.8488 -58.0186 -47.1696 
-60.8488 -58.4903 -47.1696 
-61.2723 -56.5591 -47.1326 
-61.2723 -57.0304 -47.1326 
-61.2723 -57.5017 -47.1326 
-61.2723 -57.9731 -47.1326 
-61.2723 -58.4444 -47.1326 
-61.6952 -56.5147 -47.0956 
-61.6952 -56.9856 -47.0956 
-61.6952 -57.4566 -47.0956 
-61.6952 -57.9275 -47.0956 
-61.6952 -58.3985 -47.0956 
-62.1174 -56.4704 -47.0586 
-62.1174 -56.9409 -47.0586 
-62.1174 -57.4115 -47.0586 
-62.1174 -57.8821 -47.0586 
-62.1174 -58.3527 -47.0586 
-62.5389 -56.4261 -47.0218 
-62.5389 -56.8963 -47.0218 
-62.5389 -57.3665 -47.0218 
-62.5389 -57.8368 -47.0218 
-62.5389 -58.307 -47.0218 
-62.9598 -56.3819 -46.9849 
-62.9598 -56.8518 -46.9849 
-62.9598 -57.3216 -46.9849 
-62.9598 -57.7915 -46.9849 
-62.9598 -58.2613 -46.9849 
-63.38 -56.3378 -46.9482 
-63.38 -56.8073 -46.9482 
-63.38 -57.2768 -46.9482 
-63.38 -57.7462 -46.9482 
-63.38 -58.2157 -46.9482 
-63.7996 -56.2938 -46.9115 
-63.7996 -56.7629 -46.9115 
-63.7996 -57.232 -46.9115 
-63.7996 -57.7011 -46.9115 
-63.7996 -58.1702 -46.9115 
-64.2185 -56.2498 -46.8748 
-64.2185 -56.7185 -46.8748 
-64.2185 -57.1873 -46.8748 
-64.2185 -57.656 -46.8748 
-64.2185 -58.1248 -46.8748 
-64.6367 -56.2059 -46.8382 
-64.6367 -56.6742 -46.8382 
-64.6367 -57.1426 -46.8382 
-64.6367 -57.611 -46.8382 
-64.6367 -58.0794 -46.8382 
-65.0543 -56.162 -46.8017 
-65.0543 -56.63 -46.8017 
-65.0543 -57.098 -46.8017 
-65.0543 -57.5661 -46.8017 
-65.0543 -58.0341 -46.8017 
-65.4713 -56.1182 -46.7652 
-65.4713 -56.5859 -46.7652 
-65.4713 -57.0535 -46.7652 
-65.4713 -57.5212 -46.7652 
-65.4713 -57.9889 -46.7652 
-65.8876 -56.0745 -46.7288 
-65.8876 -56.5418 -46.7288 
-65.8876 -57.0091 -46.7288 
-65.8876 -57.4764 -46.7288 
-65.8876 -57.9437 -46.7288 
-66.3032 -56.0309 -46.6924 
-66.3032 -56.4978 -46.6924 
-66.3032 -56.9647 -46.6924 
-66.3032 -57.4317 -46.6924 
-66.3032 -57.8986 -46.6924 
-66.7182 -55.9873 -46.6561 
-66.7182 -56.4539 -46.6561 
-66.7182 -56.9205 -46.6561 
-66.7182 -57.387 -46.6561 
-66.7182 -57.8536 -46.6561 
-67.1326 -55.9438 -46.6199 
-67.1326 -56.41 -46.6199 
-67.1326 -56.8762 -46.6199 
-67.1326 -57.3424 -46.6199 
-67.1326 -57.8086 -46.6199 
-67.5463 -55.9004 -46.5837 
-67.5463 -56.3662 -46.5837 
-67.5463 -56.8321 -46.5837 
-67.5463 -57.2979 -46.5837 
-67.5463 -57.7637 -46.5837 
-67.9594 -55.857 -46.5475 
-67.9594 -56.3225 -46.5475 
-67.9594 -56.788 -46.5475 
-67.9594 -57.2535 -46.5475 
-67.9594 -57.7189 -46.5475 
-68.3718 -55.8137 -46.5114 
-68.3718 -56.2788 -46.5114 
-68.3718 -56.744 -46.5114 
-68.3718 -57.2091 -46.5114 
-68.3718 -57.6742 -46.5114 
-68.7836 -55.7705 -46.4754 
-68.7836 -56.2352 -46.4754 
-68.7836 -56.7 -46.4754 
-68.7836 -57.1648 -46.4754 
-68.7836 -57.6295 -46.4754 
-69.1948 -55.7273 -46.4394 
-69.1948 -56.1917 -46.4394 
-69.1948 -56.6561 -46.4394 
-69.1948 -57.1205 -46.4394 
-69.1948 -57.5849 -46.4394 
-69.6053 -55.6842 -46.4035 
-69.6053 -56.1483 -46.4035 
-69.6053 -56.6123 -46.4035 
-69.6053 -57.0763 -46.4035 
-69.6053 -57.5404 -46.4035 
-70.0152 -55.6412 -46.3677 
-70.0152 -56.1049 -46.3677 
-70.0152 -56.5686 -46.3677 
-70.0152 -57.0322 -46.3677 
-70.0152 -57.4959 -46.3677 
-70.4244 -55.5982 -46.3319 
-70.4244 -56.0616 -46.3319 
-70.4244 -56.5249 -46.3319 
-70.4244 -56.9882 -46.3319 
-70.4244 -57.4515 -46.3319 
-70.833 -55.5553 -46.2961 
-70.833 -56.0183 -46.2961 
-70.833 -56.4813 -46.2961 
-70.833 -56.9442 -46.2961 
-70.833 -57.4072 -46.2961 
-71.241 -55.5125 -46.2604 
-71.241 -55.9751 -46.2604 
-71.241 -56.4377 -46.2604 
-71.241 -56.9003 -46.2604 
-71.241 -57.3629 -46.2604 
-71.6484 -55.4697 -46.2248 
-71.6484 -55.932 -46.2248 
-71.6484 -56.3942 -46.2248 
-71.6484 -56.8565 -46.2248 
-71.6484 -57.3187 -46.2248 
-72.0551 -55.427 -46.1892 
-72.0551 -55.8889 -46.1892 
-72.0551 -56.3508 -46.1892 
-72.0551 -56.8127 -46.1892 
-72.0551 -57.2746 -46.1892 
-72.4613 -55.3844 -46.1537 
-72.4613 -55.8459 -46.1537 
-72.4613 -56.3075 -46.1537 
-72.4613 -56.769 -46.1537 
-72.4613 -57.2305 -46.1537 
-72.8667 -55.3418 -46.1182 
-72.8667 -55.803 -46.1182 
-72.8667 -56.2642 -46.1182 
-72.8667 -56.7254 -46.1182 
-72.8667 -57.1866 -46.1182 
-73.2716 -55.2993 -46.0828 
-73.2716 -55.7601 -46.0828 
-73.2716 -56.221 -46.0828 
-73.2716 -56.6818 -46.0828 
-73.2716 -57.1426 -46.0828 
-73.6758 -55.2569 -46.0474 
-73.6758 -55.7174 -46.0474 
-73.6758 -56.1778 -46.0474 
-73.6758 -56.6383 -46.0474 
-73.6758 -57.0988 -46.0474 
-74.0795 -55.2145 -46.0121 
-74.0795 -55.6746 -46.0121 
-74.0795 -56.1347 -46.0121 
-74.0795 -56.5949 -46.0121 
-74.0795 -57.055 -46.0121 
-74.4825 -55.1722 -45.9768 
-74.4825 -55.632 -45.9768 
-74.4825 -56.0917 -45.9768 
-74.4825 -56.5515 -45.9768 
-74.4825 -57.0113 -45.9768 
-74.8848 -55.1299 -45.9416 
-74.8848 -55.5894 -45.9416 
-74.8848 -56.0488 -45.9416 
-74.8848 -56.5082 -45.9416 
-74.8848 -56.9676 -45.9416 
-75.2866 -55.0878 -45.9065 
-75.2866 -55.5468 -45.9065 
-75.2866 -56.0059 -45.9065 
-75.2866 -56.465 -45.9065 
-75.2866 -56.924 -45.9065 
-75.6878 -55.0457 -45.8714 
-75.6878 -55.5044 -45.8714 
-75.6878 -55.9631 -45.8714 
-75.6878 -56.4218 -45.8714 
-75.6878 -56.8805 -45.8714 
-76.0883 -55.0036 -45.8363 
-76.0883 -55.462 -45.8363 
-76.0883 -55.9203 -45.8363 
-76.0883 -56.3787 -45.8363 
-76.0883 -56.8371 -45.8363 
-76.4882 -54.9616 -45.8013 
-76.4882 -55.4196 -45.8013 
-76.4882 -55.8776 -45.8013 
-76.4882 -56.3357 -45.8013 
-76.4882 -56.7937 -45.8013 
-76.8876 -54.9197 -45.7664 
-76.8876 -55.3774 -45.7664 
-76.8876 -55.835 -45.7664 
-76.8876 -56.2927 -45.7664 
-76.8876 -56.7503 -45.7664 
-77.2863 -54.8778 -45.7315 
-77.2863 -55.3351 -45.7315 
-77.2863 -55.7925 -45.7315 
-77.2863 -56.2498 -45.7315 
-77.2863 -56.7071 -45.7315 
-77.6844 -54.836 -45.6967 
-77.6844 -55.293 -45.6967 
-77.6844 -55.75 -45.6967 
-77.6844 -56.2069 -45.6967 
-77.6844 -56.6639 -45.6967 
-78.0819 -54.7943 -45.6619 
-78.0819 -55.2509 -45.6619 
-78.0819 -55.7075 -45.6619 
-78.0819 -56.1642 -45.6619 
-78.0819 -56.6208 -45.6619 
-78.4788 -54.7526 -45.6272 
-78.4788 -55.2089 -45.6272 
-78.4788 -55.6652 -45.6272 
-78.4788 -56.1214 -45.6272 
-78.4788 -56.5777 -45.6272 
-78.8751 -54.711 -45.5925 
-78.8751 -55.167 -45.5925 
-78.8751 -55.6229 -45.5925 
-78.8751 -56.0788 -45.5925 
-78.8751 -56.5347 -45.5925 
-79.2708 -54.6695 -45.5579 
-79.2708 -55.1251 -45.5579 
-79.2708 -55.5806 -45.5579 
-79.2708 -56.0362 -45.5579 
-79.2708 -56.4918 -45.5579 
-79.6658 -54.628 -45.5233 
-79.6658 -55.0832 -45.5233 
-79.6658 -55.5385 -45.5233 
-79.6658 -55.9937 -45.5233 
-79.6658 -56.4489 -45.5233 
-80.0603 -54.5866 -45.4888 
-80.0603 -55.0415 -45.4888 
-80.0603 -55.4964 -45.4888 
-80.0603 -55.9513 -45.4888 
-80.0603 -56.4061 -45.4888 
-80.4542 -54.5452 -45.4544 
-80.4542 -54.9998 -45.4544 
-80.4542 -55.4543 -45.4544 
-80.4542 -55.9089 -45.4544 
-80.4542 -56.3634 -45.4544 
-80.8475 -54.5039 -45.42 
-80.8475 -54.9581 -45.42 
-80.8475 -55.4123 -45.42 
-80.8475 -55.8665 -45.42 
-80.8475 -56.3207 -45.42 
-81.2402 -54.4627 -45.3856 
-81.2402 -54.9166 -45.3856 
-81.2402 -55.3704 -45.3856 
-81.2402 -55.8243 -45.3856 
-81.2402 -56.2781 -45.3856 
-81.6323 -54.4216 -45.3513 
-81.6323 -54.8751 -45.3513 
-81.6323 -55.3286 -45.3513 
-81.6323 -55.7821 -45.3513 
-81.6323 -56.2356 -45.3513 
-82.0238 -54.3805 -45.317 
-82.0238 -54.8336 -45.317 
-82.0238 -55.2868 -45.317 
-82.0238 -55.74 -45.317 
-82.0238 -56.1931 -45.317 
-82.4148 -54.3394 -45.2828 
-82.4148 -54.7922 -45.2828 
-82.4148 -55.2451 -45.2828 
-82.4148 -55.6979 -45.2828 
-82.4148 -56.1507 -45.2828 
-82.8051 -54.2984 -45.2487 
-82.8051 -54.7509 -45.2487 
-82.8051 -55.2034 -45.2487 
-82.8051 -55.6559 -45.2487 
-82.8051 -56.1084 -45.2487 
-83.1948 -54.2575 -45.2146 
-83.1948 -54.7097 -45.2146 
-83.1948 -55.1618 -45.2146 
-83.1948 -55.6139 -45.2146 
-83.1948 -56.0661 -45.2146 
-83.584 -54.2167 -45.1805 
-83.584 -54.6685 -45.1805 
-83.584 -55.1203 -45.1805 
-83.584 -55.5721 -45.1805 
-83.584 -56.0239 -45.1805 
-83.9726 -54.1759 -45.1465 
-83.9726 -54.6273 -45.1465 
-83.9726 -55.0788 -45.1465 
-83.9726 -55.5303 -45.1465 
-83.9726 -55.9817 -45.1465 
-84.3606 -54.1351 -45.1126 
-84.3606 -54.5863 -45.1126 
-84.3606 -55.0374 -45.1126 
-84.3606 -55.4885 -45.1126 
-84.3606 -55.9396 -45.1126 
-84.748 -54.0945 -45.0787 
-84.748 -54.5452 -45.0787 
-84.748 -54.996 -45.0787 
-84.748 -55.4468 -45.0787 
-84.748 -55.8976 -45.0787 
-85.1348 -54.0538 -45.0449 
-85.1348 -54.5043 -45.0449 
-85.1348 -54.9547 -45.0449 
-85.1348 -55.4052 -45.0449 
-85.1348 -55.8556 -45.0449 
-85.521 -54.0133 -45.0111 
-85.521 -54.4634 -45.0111 
-85.521 -54.9135 -45.0111 
-85.521 -55.3636 -45.0111 
-85.521 -55.8137 -45.0111 
-85.9067 -53.9728 -44.9773 
-85.9067 -54.4226 -44.9773 
-85.9067 -54.8723 -44.9773 
-85.9067 -55.3221 -44.9773 
-85.9067 -55.7719 -44.9773 
-86.2918 -53.9324 -44.9436 
-86.2918 -54.3818 -44.9436 
-86.2918 -54.8312 -44.9436 
-86.2918 -55.2807 -44.9436 
-86.2918 -55.7301 -44.9436 
-86.6763 -53.892 -44.91 
-86.6763 -54.3411 -44.91 
-86.6763 -54.7902 -44.91 
-86.6763 -55.2393 -44.91 
-86.6763 -55.6884 -44.91 
-87.0602 -53.8517 -44.8764 
-87.0602 -54.3005 -44.8764 
-87.0602 -54.7492 -44.8764 
-87.0602 -55.198 -44.8764 
-87.0602 -55.6468 -44.8764 
-87.4436 -53.8114 -44.8429 
-87.4436 -54.2599 -44.8429 
-87.4436 -54.7083 -44.8429 
-87.4436 -55.1567 -44.8429 
-87.4436 -55.6052 -44.8429 
-87.8264 -53.7713 -44.8094 
-87.8264 -54.2194 -44.8094 
-87.8264 -54.6674 -44.8094 
-87.8264 -55.1155 -44.8094 
-87.8264 -55.5636 -44.8094 
-88.2086 -53.7311 -44.7759 
-88.2086 -54.1789 -44.7759 
-88.2086 -54.6267 -44.7759 
-88.2086 -55.0744 -44.7759 
-88.2086 -55.5222 -44.7759 
-88.5903 -53.6911 -44.7426 
-88.5903 -54.1385 -44.7426 
-88.5903 -54.5859 -44.7426 
-88.5903 -55.0333 -44.7426 
-88.5903 -55.4808 -44.7426 
-88.9713 -53.6511 -44.7092 
-88.9713 -54.0981 -44.7092 
-88.9713 -54.5452 -44.7092 
-88.9713 -54.9923 -44.7092 
-88.9713 -55.4394 -44.7092 
-89.3518 -53.6111 -44.6759 
-89.3518 -54.0579 -44.6759 
-89.3518 -54.5046 -44.6759 
-89.3518 -54.9514 -44.6759 
-89.3518 -55.3981 -44.6759 
-89.7318 -53.5712 -44.6427 
-89.7318 -54.0176 -44.6427 
-89.7318 -54.4641 -44.6427 
-89.7318 -54.9105 -44.6427 
-89.7318 -55.3569 -44.6427 
-90.1112 -53.5314 -44.6095 
-90.1112 -53.9775 -44.6095 
-90.1112 -54.4236 -44.6095 
-90.1112 -54.8697 -44.6095 
-90.1112 -55.3158 -44.6095 
-90.49 -53.4916 -44.5764 
-90.49 -53.9374 -44.5764 
-90.49 -54.3831 -44.5764 
-90.49 -54.8289 -44.5764 
-90.49 -55.2747 -44.5764 
-90.8682 -53.4519 -44.5433 
-90.8682 -53.8973 -44.5433 
-90.8682 -54.3428 -44.5433 
-90.8682 -54.7882 -44.5433 
-90.8682 -55.2336 -44.5433 
-91.2459 -53.4123 -44.5102 
-91.2459 -53.8574 -44.5102 
-91.2459 -54.3025 -44.5102 
-91.2459 -54.7476 -44.5102 
-91.2459 -55.1927 -44.5102 
-91.6231 -53.3727 -44.4772 
-91.6231 -53.8174 -44.4772 
-91.6231 -54.2622 -44.4772 
-91.6231 -54.707 -44.4772 
-91.6231 -55.1518 -44.4772 
-91.9996 -53.3331 -44.4443 
-91.9996 -53.7776 -44.4443 
-91.9996 -54.222 -44.4443 
-91.9996 -54.6665 -44.4443 
-91.9996 -55.1109 -44.4443 
-92.3757 -53.2937 -44.4114 
-92.3757 -53.7378 -44.4114 
-92.3757 -54.1819 -44.4114 
-92.3757 -54.626 -44.4114 
-92.3757 -55.0701 -44.4114 
-92.7511 -53.2542 -44.3785 
-92.7511 -53.698 -44.3785 
-92.7511 -54.1418 -44.3785 
-92.7511 -54.5856 -44.3785 
-92.7511 -55.0294 -44.3785 
-93.126 -53.2149 -44.3457 
-93.126 -53.6583 -44.3457 
-93.126 -54.1018 -44.3457 
-93.126 -54.5452 -44.3457 
-93.126 -54.9887 -44.3457 
-93.5004 -53.1756 -44.313 
-93.5004 -53.6187 -44.313 
-93.5004 -54.0618 -44.313 
-93.5004 -54.505 -44.313 
-93.5004 -54.9481 -44.313 
-93.8742 -53.1363 -44.2803 
-93.8742 -53.5791 -44.2803 
-93.8742 -54.0219 -44.2803 
-93.8742 -54.4647 -44.2803 
-93.8742 -54.9075 -44.2803 
-94.2474 -53.0971 -44.2476 
-94.2474 -53.5396 -44.2476 
-94.2474 -53.9821 -44.2476 
-94.2474 -54.4246 -44.2476 
-94.2474 -54.867 -44.2476 
-94.6201 -53.058 -44.215 
-94.6201 -53.5002 -44.215 
-94.6201 -53.9423 -44.215 
-94.6201 -54.3845 -44.215 
-94.6201 -54.8266 -44.215 
-94.9923 -53.0189 -44.1825 
-94.9923 -53.4608 -44.1825 
-94.9923 -53.9026 -44.1825 
-94.9923 -54.3444 -44.1825 
-94.9923 -54.7862 -44.1825 
-95.3639 -52.9799 -44.1499 
-95.3639 -53.4214 -44.1499 
-95.3639 -53.8629 -44.1499 
-95.3639 -54.3044 -44.1499 
-95.3639 -54.7459 -44.1499 
-95.7349 -52.941 -44.1175 
-95.7349 -53.3821 -44.1175 
-95.7349 -53.8233 -44.1175 
-95.7349 -54.2645 -44.1175 
-95.7349 -54.7057 -44.1175 
-96.1054 -52.9021 -44.0851 
-96.1054 -53.3429 -44.0851 
-96.1054 -53.7838 -44.0851 
-96.1054 -54.2246 -44.0851 
-96.1054 -54.6655 -44.0851 
-96.4754 -52.8632 -44.0527 
-96.4754 -53.3038 -44.0527 
-96.4754 -53.7443 -44.0527 
-96.4754 -54.1848 -44.0527 
-96.4754 -54.6253 -44.0527 
-96.8448 -52.8244 -44.0204 
-96.8448 -53.2647 -44.0204 
-96.8448 -53.7049 -44.0204 
-96.8448 -54.1451 -44.0204 
-96.8448 -54.5853 -44.0204 
-97.2137 -52.7857 -43.9881 
-97.2137 -53.2256 -43.9881 
-97.2137 -53.6655 -43.9881 
-97.2137 -54.1054 -43.9881 
-97.2137 -54.5452 -43.9881 
-97.582 -52.7471 -43.9559 
-97.582 -53.1866 -43.9559 
-97.582 -53.6262 -43.9559 
-97.582 -54.0657 -43.9559 
-97.582 -54.5053 -43.9559 
-97.9498 -52.7084 -43.9237 
-97.9498 -53.1477 -43.9237 
-97.9498 -53.5869 -43.9237 
-97.9498 -54.0261 -43.9237 
-97.9498 -54.4654 -43.9237 
-98.3171 -52.6699 -43.8916 
-98.3171 -53.1088 -43.8916 
-98.3171 -53.5477 -43.8916 
-98.3171 -53.9866 -43.8916 
-98.3171 -54.4255 -43.8916 
-98.6838 -52.6314 -43.8595 
-98.6838 -53.07 -43.8595 
-98.6838 -53.5086 -43.8595 
-98.6838 -53.9472 -43.8595 
-98.6838 -54.3858 -43.8595 
-99.05 -52.5929 -43.8274 
-99.05 -53.0312 -43.8274 
-99.05 -53.4695 -43.8274 
-99.05 -53.9078 -43.8274 
-99.05 -54.346 -43.8274 
-99.4157 -52.5545 -43.7955 
-99.4157 -52.9925 -43.7955 
-99.4157 -53.4305 -43.7955 
-99.4157 -53.8684 -43.7955 
-99.4157 -54.3064 -43.7955 
-99.7808 -52.5162 -43.7635 
-99.7808 -52.9538 -43.7635 
-99.7808 -53.3915 -43.7635 
-99.7808 -53.8291 -43.7635 
-99.7808 -54.2668 -43.7635 
-100.145 -52.4779 -43.7316 
-100.145 -52.9152 -43.7316 
-100.145 -53.3526 -43.7316 
-100.145 -53.7899 -43.7316 
-100.145 -54.2272 -43.7316 
-100.509 -52.4397 -43.6998 
-100.509 -52.8767 -43.6998 
-100.509 -53.3137 -43.6998 
-100.509 -53.7507 -43.6998 
-100.509 -54.1877 -43.6998 
-100.873 -52.4015 -43.668 
-100.873 -52.8382 -43.668 
-100.873 -53.2749 -43.668 
-100.873 -53.7116 -43.668 
-100.873 -54.1483 -43.668 
-101.236 -52.3634 -43.6362 
-101.236 -52.7998 -43.6362 
-101.236 -53.2362 -43.6362 
-101.236 -53.6725 -43.6362 
-101.236 -54.1089 -43.6362 
-101.598 -52.3254 -43.6045 
-101.598 -52.7614 -43.6045 
-101.598 -53.1975 -43.6045 
-101.598 -53.6335 -43.6045 
-101.598 -54.0696 -43.6045 
-101.96 -52.2874 -43.5728 
-101.96 -52.7231 -43.5728 
-101.96 -53.1588 -43.5728 
-101.96 -53.5946 -43.5728 
-101.96 -54.0303 -43.5728 
-102.322 -52.2494 -43.5412 
-102.322 -52.6849 -43.5412 
-102.322 -53.1203 -43.5412 
-102.322 -53.5557 -43.5412 
-102.322 -53.9911 -43.5412 
-102.683 -52.2115 -43.5096 
-102.683 -52.6466 -43.5096 
-102.683 -53.0817 -43.5096 
-102.683 -53.5168 -43.5096 
-102.683 -53.9519 -43.5096 
-103.043 -52.1737 -43.4781 
-103.043 -52.6085 -43.4781 
-103.043 -53.0433 -43.4781 
-103.043 -53.4781 -43.4781 
-103.043 -53.9128 -43.4781 
-103.403 -52.1359 -43.4466 
-103.403 -52.5704 -43.4466 
-103.403 -53.0049 -43.4466 
-103.403 -53.4393 -43.4466 
-103.403 -53.8738 -43.4466 
-103.762 -52.0982 -43.4152 
-103.762 -52.5324 -43.4152 
-103.762 -52.9665 -43.4152 
-103.762 -53.4007 -43.4152 
-103.762 -53.8348 -43.4152 
-104.121 -52.0605 -43.3838 
-104.121 -52.4944 -43.3838 
-104.121 -52.9282 -43.3838 
-104.121 -53.3621 -43.3838 
-104.121 -53.7959 -43.3838 
-104.479 -52.0229 -43.3524 
-104.479 -52.4564 -43.3524 
-104.479 -52.89 -43.3524 
-104.479 -53.3235 -43.3524 
-104.479 -53.757 -43.3524 
-104.837 -52.8518 -43.3211 
-104.837 -53.285 -43.3211 
-104.837 -53.7182 -43.3211 
-105.194 -52.8137 -43.2899 
-105.194 -53.2466 -43.2899 
-105.194 -53.6795 -43.2899 
-105.551 -51.9104 -43.2587 
-105.551 -52.343 -43.2587 
-105.551 -52.7756 -43.2587 
-105.551 -53.2082 -43.2587 
-105.551 -53.6408 -43.2587 
-105.907 -51.873 -43.2275 
-105.907 -52.3053 -43.2275 
-105.907 -52.7376 -43.2275 
-105.907 -53.1698 -43.2275 
-105.907 -53.6021 -43.2275 
-106.263 -51.8357 -43.1964 
-106.263 -52.2676 -43.1964 
-106.263 -52.6996 -43.1964 
-106.263 -53.1315 -43.1964 
-106.263 -53.5635 -43.1964 
-106.618 -51.7984 -43.1653 
-106.618 -52.23 -43.1653 
-106.618 -52.6617 -43.1653 
-106.618 -53.0933 -43.1653 
-106.973 -51.7611 -43.1343 
-106.973 -52.1925 -43.1343 
-106.973 -52.6238 -43.1343 
-106.973 -53.0552 -43.1343 
-106.973 -53.4865 -43.1343 
-107.327 -51.7239 -43.1033 
-107.327 -52.155 -43.1033 
-107.327 -52.586 -43.1033 
-107.327 -53.017 -43.1033 
-107.327 -53.4481 -43.1033 
-107.681 -51.6868 -43.0723 
-107.681 -52.1175 -43.0723 
-107.681 -53.4097 -43.0723 
-108.034 -52.0802 -43.0414 
-108.387 -52.4729 -43.0106 
-24.6643 -63.4225 -50.3354 
-25.1466 -61.8606 -50.2932 
-25.1466 -62.3635 -50.2932 
-25.1466 -62.8664 -50.2932 
-25.1466 -63.3694 -50.2932 
-25.1466 -63.8723 -50.2932 
-25.628 -61.8088 -50.251 
-25.628 -62.3113 -50.251 
-25.628 -62.8138 -50.251 
-25.628 -63.3163 -50.251 
-25.628 -63.8188 -50.251 
-26.1087 -61.7571 -50.209 
-26.1087 -62.2591 -50.209 
-26.1087 -62.7612 -50.209 
-26.1087 -63.2633 -50.209 
-26.1087 -63.7654 -50.209 
-26.5885 -61.7054 -50.167 
-26.5885 -62.2071 -50.167 
-26.5885 -62.7088 -50.167 
-26.5885 -63.2104 -50.167 
-26.5885 -63.7121 -50.167 
-27.0676 -62.1551 -50.1251 
-27.0676 -62.6564 -50.1251 
-27.0676 -63.1576 -50.1251 
-27.0676 -63.6589 -50.1251 
-27.5458 -62.1032 -50.0833 
-27.5458 -62.6041 -50.0833 
-27.5458 -63.1049 -50.0833 
-27.5458 -63.6057 -50.0833 
-28.0232 -61.551 -50.0415 
-28.0232 -62.0514 -50.0415 
-28.0232 -62.5519 -50.0415 
-28.0232 -63.0523 -50.0415 
-28.0232 -63.5527 -50.0415 
-28.4999 -61.4997 -49.9998 
-28.4999 -61.9997 -49.9998 
-28.4999 -62.4997 -49.9998 
-28.4999 -62.9997 -49.9998 
-28.4999 -63.4997 -49.9998 
-28.9757 -61.4485 -49.9581 
-28.9757 -61.9481 -49.9581 
-28.9757 -62.4477 -49.9581 
-28.9757 -62.9473 -49.9581 
-28.9757 -63.4468 -49.9581 
-29.4508 -61.3974 -49.9166 
-29.4508 -61.8966 -49.9166 
-29.4508 -62.3957 -49.9166 
-29.4508 -62.8949 -49.9166 
-29.4508 -63.3941 -49.9166 
-29.9251 -61.3464 -49.8751 
-29.9251 -61.8451 -49.8751 
-29.9251 -62.3439 -49.8751 
-29.9251 -62.8426 -49.8751 
-29.9251 -63.3414 -49.8751 
-30.3985 -61.2954 -49.8337 
-30.3985 -61.7938 -49.8337 
-30.3985 -62.2921 -49.8337 
-30.3985 -62.7904 -49.8337 
-30.3985 -63.2888 -49.8337 
-30.8712 -61.2445 -49.7923 
-30.8712 -61.7425 -49.7923 
-30.8712 -62.2404 -49.7923 
-30.8712 -62.7383 -49.7923 
-30.8712 -63.2362 -49.7923 
-31.3431 -61.1938 -49.751 
-31.3431 -61.6913 -49.751 
-31.3431 -62.1888 -49.751 
-31.3431 -62.6863 -49.751 
-31.3431 -63.1838 -49.751 
-31.8143 -61.1431 -49.7098 
-31.8143 -61.6402 -49.7098 
-31.8143 -62.1373 -49.7098 
-31.8143 -62.6344 -49.7098 
-31.8143 -63.1315 -49.7098 
-32.2846 -61.0924 -49.6687 
-32.2846 -61.5891 -49.6687 
-32.2846 -62.0858 -49.6687 
-32.2846 -62.5825 -49.6687 
-32.2846 -63.0792 -49.6687 
-32.7542 -61.0419 -49.6276 
-32.7542 -61.5382 -49.6276 
-32.7542 -62.0345 -49.6276 
-32.7542 -62.5307 -49.6276 
-32.7542 -63.027 -49.6276 
-33.223 -60.9915 -49.5866 
-33.223 -61.4873 -49.5866 
-33.223 -61.9832 -49.5866 
-33.223 -62.4791 -49.5866 
-33.223 -62.9749 -49.5866 
-33.691 -60.9411 -49.5456 
-33.691 -61.4366 -49.5456 
-33.691 -61.932 -49.5456 
-33.691 -62.4275 -49.5456 
-33.691 -62.9229 -49.5456 
-34.1583 -60.8908 -49.5047 
-34.1583 -61.3859 -49.5047 
-34.1583 -61.8809 -49.5047 
-34.1583 -62.376 -49.5047 
-34.1583 -62.871 -49.5047 
-34.6247 -60.8406 -49.4639 
-34.6247 -61.3353 -49.4639 
-34.6247 -61.8299 -49.4639 
-34.6247 -62.3245 -49.4639 
-34.6247 -62.8192 -49.4639 
-35.0905 -60.7905 -49.4232 
-35.0905 -61.2847 -49.4232 
-35.0905 -61.779 -49.4232 
-35.0905 -62.2732 -49.4232 
-35.0905 -62.7674 -49.4232 
-35.5554 -60.7405 -49.3825 
-35.5554 -61.2343 -49.3825 
-35.5554 -61.7281 -49.3825 
-35.5554 -62.222 -49.3825 
-35.5554 -62.7158 -49.3825 
-36.0196 -60.6905 -49.3419 
-36.0196 -61.1839 -49.3419 
-36.0196 -61.6774 -49.3419 
-36.0196 -62.1708 -49.3419 
-36.0196 -62.6642 -49.3419 
-36.483 -60.6407 -49.3013 
-36.483 -61.1337 -49.3013 
-36.483 -61.6267 -49.3013 
-36.483 -62.1197 -49.3013 
-36.483 -62.6127 -49.3013 
-36.9457 -60.5909 -49.2609 
-36.9457 -61.0835 -49.2609 
-36.9457 -61.5761 -49.2609 
-36.9457 -62.0687 -49.2609 
-36.9457 -62.5613 -49.2609 
-37.4076 -60.5412 -49.2205 
-37.4076 -61.0334 -49.2205 
-37.4076 -61.5256 -49.2205 
-37.4076 -62.0178 -49.2205 
-37.4076 -62.51 -49.2205 
-37.8687 -60.4915 -49.1801 
-37.8687 -60.9833 -49.1801 
-37.8687 -61.4751 -49.1801 
-37.8687 -61.9669 -49.1801 
-37.8687 -62.4587 -49.1801 
-38.3291 -60.442 -49.1398 
-38.3291 -60.9334 -49.1398 
-38.3291 -61.4248 -49.1398 
-38.3291 -61.9162 -49.1398 
-38.3291 -62.4076 -49.1398 
-38.7887 -60.3925 -49.0996 
-38.7887 -60.8835 -49.0996 
-38.7887 -61.3745 -49.0996 
-38.7887 -61.8655 -49.0996 
-38.7887 -62.3565 -49.0996 
-39.2476 -60.3432 -49.0595 
-39.2476 -60.8338 -49.0595 
-39.2476 -61.3243 -49.0595 
-39.2476 -61.8149 -49.0595 
-39.2476 -62.3055 -49.0595 
-39.7057 -60.2939 -49.0194 
-39.7057 -60.7841 -49.0194 
-39.7057 -61.2742 -49.0194 
-39.7057 -61.7644 -49.0194 
-39.7057 -62.2546 -49.0194 
-40.1631 -60.2446 -48.9794 
-40.1631 -60.7344 -48.9794 
-40.1631 -61.2242 -48.9794 
-40.1631 -61.714 -48.9794 
-40.1631 -62.2038 -48.9794 
-40.6197 -60.1955 -48.9394 
-40.6197 -60.6849 -48.9394 
-40.6197 -61.1743 -48.9394 
-40.6197 -61.6637 -48.9394 
-40.6197 -62.1531 -48.9394 
-41.0756 -60.1464 -48.8995 
-41.0756 -60.6354 -48.8995 
-41.0756 -61.1244 -48.8995 
-41.0756 -61.6134 -48.8995 
-41.0756 -62.1024 -48.8995 
-41.5308 -60.0975 -48.8597 
-41.5308 -60.5861 -48.8597 
-41.5308 -61.0747 -48.8597 
-41.5308 -61.5633 -48.8597 
-41.5308 -62.0519 -48.8597 
-41.9852 -60.0486 -48.82 
-41.9852 -60.5368 -48.82 
-41.9852 -61.025 -48.82 
-41.9852 -61.5132 -48.82 
-41.9852 -62.0014 -48.82 
-42.4388 -59.9997 -48.7803 
-42.4388 -60.4875 -48.7803 
-42.4388 -60.9753 -48.7803 
-42.4388 -61.4632 -48.7803 
-42.4388 -61.951 -48.7803 
-42.8918 -59.951 -48.7407 
-42.8918 -60.4384 -48.7407 
-42.8918 -60.9258 -48.7407 
-42.8918 -61.4132 -48.7407 
-42.8918 -61.9006 -48.7407 
-43.344 -59.9023 -48.7011 
-43.344 -60.3894 -48.7011 
-43.344 -60.8764 -48.7011 
-43.344 -61.3634 -48.7011 
-43.344 -61.8504 -48.7011 
-43.7954 -59.8538 -48.6616 
-43.7954 -60.3404 -48.6616 
-43.7954 -60.827 -48.6616 
-43.7954 -61.3136 -48.6616 
-43.7954 -61.8002 -48.6616 
-44.2462 -59.8053 -48.6222 
-44.2462 -60.2915 -48.6222 
-44.2462 -60.7777 -48.6222 
-44.2462 -61.2639 -48.6222 
-44.2462 -61.7501 -48.6222 
-44.6962 -59.7568 -48.5828 
-44.6962 -60.2427 -48.5828 
-44.6962 -60.7285 -48.5828 
-44.6962 -61.2143 -48.5828 
-44.6962 -61.7001 -48.5828 
-45.1454 -59.7085 -48.5435 
-45.1454 -60.1939 -48.5435 
-45.1454 -60.6794 -48.5435 
-45.1454 -61.1648 -48.5435 
-45.1454 -61.6502 -48.5435 
-45.594 -59.6602 -48.5042 
-45.594 -60.1453 -48.5042 
-45.594 -60.6303 -48.5042 
-45.594 -61.1153 -48.5042 
-45.594 -61.6004 -48.5042 
-46.0418 -59.612 -48.4651 
-46.0418 -60.0967 -48.4651 
-46.0418 -60.5813 -48.4651 
-46.0418 -61.066 -48.4651 
-46.0418 -61.5506 -48.4651 
-46.4889 -59.5639 -48.4259 
-46.4889 -60.0482 -48.4259 
-46.4889 -60.5324 -48.4259 
-46.4889 -61.0167 -48.4259 
-46.4889 -61.5009 -48.4259 
-46.9353 -59.5159 -48.3869 
-46.9353 -59.9997 -48.3869 
-46.9353 -60.4836 -48.3869 
-46.9353 -60.9675 -48.3869 
-46.9353 -61.4514 -48.3869 
-47.3809 -59.4679 -48.3479 
-47.3809 -59.9514 -48.3479 
-47.3809 -60.4349 -48.3479 
-47.3809 -60.9184 -48.3479 
-47.3809 -61.4018 -48.3479 
-47.8259 -59.42 -48.309 
-47.8259 -59.9031 -48.309 
-47.8259 -60.3862 -48.309 
-47.8259 -60.8693 -48.309 
-47.8259 -61.3524 -48.309 
-48.2701 -59.3722 -48.2701 
-48.2701 -59.8549 -48.2701 
-48.2701 -60.3376 -48.2701 
-48.2701 -60.8203 -48.2701 
-48.2701 -61.303 -48.2701 
-48.7136 -59.3245 -48.2313 
-48.7136 -59.8068 -48.2313 
-48.7136 -60.2891 -48.2313 
-48.7136 -60.7715 -48.2313 
-48.7136 -61.2538 -48.2313 
-49.1564 -59.2769 -48.1926 
-49.1564 -59.7588 -48.1926 
-49.1564 -60.2407 -48.1926 
-49.1564 -60.7226 -48.1926 
-49.1564 -61.2046 -48.1926 
-49.5985 -59.2293 -48.1539 
-49.5985 -59.7108 -48.1539 
-49.5985 -60.1924 -48.1539 
-49.5985 -60.6739 -48.1539 
-49.5985 -61.1554 -48.1539 
-50.0399 -59.1818 -48.1153 
-50.0399 -59.6629 -48.1153 
-50.0399 -60.1441 -48.1153 
-50.0399 -60.6252 -48.1153 
-50.0399 -61.1064 -48.1153 
-50.4806 -59.1344 -48.0767 
-50.4806 -59.6151 -48.0767 
-50.4806 -60.0959 -48.0767 
-50.4806 -60.5767 -48.0767 
-50.4806 -61.0574 -48.0767 
-50.9205 -59.087 -48.0382 
-50.9205 -59.5674 -48.0382 
-50.9205 -60.0478 -48.0382 
-50.9205 -60.5282 -48.0382 
-50.9205 -61.0086 -48.0382 
-51.3598 -59.0398 -47.9998 
-51.3598 -59.5198 -47.9998 
-51.3598 -59.9997 -47.9998 
-51.3598 -60.4797 -47.9998 
-51.3598 -60.9597 -47.9998 
-51.7983 -58.9926 -47.9614 
-51.7983 -59.4722 -47.9614 
-51.7983 -59.9518 -47.9614 
-51.7983 -60.4314 -47.9614 
-51.7983 -60.911 -47.9614 
-52.2362 -58.9454 -47.9231 
-52.2362 -59.4247 -47.9231 
-52.2362 -59.9039 -47.9231 
-52.2362 -60.3831 -47.9231 
-52.2362 -60.8624 -47.9231 
-52.6734 -58.8984 -47.8849 
-52.6734 -59.3772 -47.8849 
-52.6734 -59.8561 -47.8849 
-52.6734 -60.3349 -47.8849 
-52.6734 -60.8138 -47.8849 
-53.1098 -58.8514 -47.8467 
-53.1098 -59.3299 -47.8467 
-53.1098 -59.8084 -47.8467 
-53.1098 -60.2868 -47.8467 
-53.1098 -60.7653 -47.8467 
-53.5456 -58.8045 -47.8086 
-53.5456 -59.2826 -47.8086 
-53.5456 -59.7607 -47.8086 
-53.5456 -60.2388 -47.8086 
-53.5456 -60.7169 -47.8086 
-53.9807 -58.7577 -47.7705 
-53.9807 -59.2354 -47.7705 
-53.9807 -59.7131 -47.7705 
-53.9807 -60.1908 -47.7705 
-53.9807 -60.6685 -47.7705 
-54.415 -58.711 -47.7325 
-54.415 -59.1883 -47.7325 
-54.415 -59.6656 -47.7325 
-54.415 -60.1429 -47.7325 
